ply
                    format ascii 1.0
                    element vertex 236
                    property float x
                    property float y
                    property float z
                    end_header
                    -12.125092506408691 -6.793160915374756 3.9072155952453613
-12.293012619018555 -7.228226661682129 3.9313089847564697
-11.706219673156738 -5.986167907714844 3.57672381401062
-11.850618362426758 -5.228991985321045 3.2161056995391846
-12.226542472839355 -0.9897023439407349 1.4193428754806519
-10.859698295593262 -1.9174120426177979 1.5163596868515015
-14.379972457885742 -5.155703544616699 11.599239349365234
-16.973615646362305 -13.007189750671387 1.9737136363983154
-15.313603401184082 -9.25012493133545 3.515158176422119
-15.823330879211426 -9.96030330657959 1.331956148147583
-17.03829574584961 -11.730729103088379 3.024439573287964
-15.240823745727539 -10.167957305908203 -1.6633689403533936
-16.658479690551758 -11.270201683044434 3.647845506668091
-16.056884765625 -7.716224670410156 -0.04740434139966965
-17.019906997680664 -4.301771640777588 6.291090488433838
-14.906418800354004 -7.550185203552246 5.766560077667236
-16.27860450744629 -8.406865119934082 2.495650053024292
-12.472955703735352 -4.201877117156982 -3.347618818283081
-15.300118446350098 -6.733407497406006 6.462110996246338
-17.136869430541992 -5.965435028076172 0.5184305310249329
-17.510540008544922 -8.248026847839355 0.8705281615257263
-14.868423461914062 -7.3402628898620605 4.44446325302124
-17.350027084350586 -9.088326454162598 2.178795099258423
-15.832684516906738 -5.319314479827881 3.1242496967315674
-15.350264549255371 -8.802345275878906 -2.07741117477417
-14.764791488647461 -7.056158065795898 3.157709836959839
-15.55941104888916 -4.990893363952637 4.756622314453125
-14.994575500488281 -1.877394199371338 1.1926888227462769
-16.947006225585938 -10.603116035461426 2.8768064975738525
-15.441216468811035 -1.984104037284851 7.444684982299805
-15.698637008666992 -9.509186744689941 2.358147144317627
-12.090599060058594 -3.278580904006958 -7.280684471130371
-12.457486152648926 -3.36523175239563 -6.486678600311279
-9.616069793701172 2.456861734390259 1.285801887512207
-12.414761543273926 0.8745141625404358 9.192708969116211
-15.873964309692383 -1.6497268676757812 17.522724151611328
-13.210225105285645 -4.14988899230957 1.4480488300323486
-13.80440616607666 -4.611695766448975 -6.3803582191467285
-16.25649070739746 -7.67709493637085 -1.3503860235214233
-10.423498153686523 1.657721996307373 -2.1948082447052
-17.036861419677734 -7.560482978820801 3.975032329559326
-16.490253448486328 -8.785126686096191 2.2342803478240967
-15.944318771362305 -5.364853858947754 -0.8483263254165649
-14.632898330688477 -6.116631507873535 -5.244396209716797
-15.001823425292969 -4.2328290939331055 0.3080004155635834
-12.483272552490234 0.4228709936141968 2.696209669113159
-11.8807954788208 -1.0977180004119873 -3.0288612842559814
-15.051030158996582 1.3152872323989868 14.81380558013916
-14.243684768676758 -0.5135655999183655 16.362377166748047
-16.779775619506836 -9.0184907913208 -0.9919814467430115
-14.245830535888672 -3.527853488922119 -4.480255126953125
-13.816858291625977 -5.975261688232422 -6.860541820526123
-13.756338119506836 -0.8170739412307739 4.6224870681762695
-14.05614948272705 -0.17393432557582855 7.882740497589111
-16.040977478027344 -3.5225729942321777 -0.7090436220169067
-16.26972770690918 -7.284364700317383 -1.8565841913223267
-14.92224407196045 -5.148547172546387 0.7072933316230774
-15.300603866577148 -1.8527486324310303 8.31166934967041
-15.568596839904785 -4.414384841918945 3.35211443901062
-15.621374130249023 -7.337571144104004 -2.242063522338867
-15.620405197143555 -3.2328600883483887 0.12158873677253723
-15.266873359680176 1.5595860481262207 -0.9067368507385254
-13.327051162719727 -2.3852791786193848 -1.428846836090088
-13.692411422729492 -3.0262951850891113 -2.083906412124634
-12.471617698669434 0.06489140540361404 0.494863361120224
-12.477216720581055 0.9069116115570068 1.7477660179138184
-11.371079444885254 1.9556198120117188 -2.089080572128296
-12.329947471618652 0.01230712328106165 2.0089759826660156
-10.889322280883789 3.287200450897217 1.5723519325256348
-14.845417976379395 0.7799144387245178 10.680068016052246
-12.307568550109863 7.070432662963867 6.783108711242676
-14.305525779724121 -4.885356426239014 -0.6011989712715149
-11.82288646697998 -0.32231634855270386 -3.512357473373413
-14.345815658569336 -3.97065806388855 -3.3160836696624756
-12.672449111938477 -0.1750394105911255 -1.6361078023910522
-12.164848327636719 1.3815515041351318 -0.9159358143806458
-15.240821838378906 0.7360603213310242 15.462112426757812
-11.592070579528809 4.102097511291504 2.624643087387085
-15.464065551757812 -0.5221595168113708 -6.070689678192139
-14.206375122070312 3.1040000915527344 4.73628568649292
-14.911870956420898 -0.0973706915974617 8.05925464630127
-14.143807411193848 0.7577565312385559 2.426483154296875
-12.594874382019043 1.2108073234558105 -0.1833556741476059
-14.508509635925293 -0.3980633318424225 1.1424834728240967
-12.45751667022705 -0.22074323892593384 -1.589901328086853
-14.32886791229248 0.5936594009399414 3.0859479904174805
-10.881853103637695 3.271378755569458 -0.01591787114739418
-15.232155799865723 -0.40873992443084717 11.21721076965332
-15.229683876037598 3.601201057434082 16.724903106689453
-16.799150466918945 -4.703287124633789 4.876394748687744
-17.354503631591797 -6.144965648651123 -1.5846407413482666
-17.611600875854492 -6.26744270324707 1.0530972480773926
-17.63749122619629 -7.470304012298584 2.139737606048584
-16.640178680419922 -3.440068006515503 2.617741107940674
-17.118730545043945 -3.494105100631714 6.098956108093262
-16.43094825744629 -3.009247303009033 0.01638156548142433
-16.717317581176758 -4.5650315284729 -1.9625815153121948
-16.66309356689453 -4.276975631713867 -2.079235792160034
-14.357187271118164 -4.202845096588135 -2.2532989978790283
-16.371274948120117 -1.947593331336975 3.4197890758514404
-11.671582221984863 0.533565878868103 -6.882662296295166
-16.72325897216797 -5.175586223602295 -1.8159157037734985
-13.826883316040039 3.61348032951355 12.475775718688965
-15.445840835571289 -2.177712917327881 5.019643783569336
-18.07725715637207 -2.973675012588501 4.988443374633789
-18.175189971923828 -6.609738826751709 -0.7664934396743774
-17.1201114654541 -6.441337585449219 -3.649967670440674
-16.779264450073242 -4.062305927276611 0.42127254605293274
-16.801071166992188 -4.017932415008545 1.3113243579864502
-17.69723892211914 -4.53855562210083 2.137174367904663
-16.68606948852539 -0.12379486113786697 2.213576316833496
-16.99432373046875 -1.5230076313018799 1.7401018142700195
-16.750959396362305 -1.87876558303833 5.13843297958374
-16.08869743347168 -2.545252561569214 5.212142467498779
-15.013514518737793 -2.0371294021606445 1.3831127882003784
-16.165285110473633 -4.054439067840576 -0.6466677784919739
-17.71512222290039 -5.94383430480957 1.8059616088867188
-16.763931274414062 -2.858386278152466 5.310798168182373
-16.28299903869629 -4.39100456237793 -1.5958932638168335
-15.591920852661133 -2.3658361434936523 0.7768650054931641
-14.600422859191895 -2.114513874053955 1.018008828163147
-13.794885635375977 -6.5150980949401855 -6.654733657836914
-15.574230194091797 -5.951467514038086 -3.4682767391204834
-14.913592338562012 -4.238248348236084 -5.951345443725586
-14.477672576904297 -3.8647520542144775 -5.183139324188232
-14.771308898925781 -3.486686944961548 -5.3164544105529785
-13.354609489440918 0.9064100384712219 -1.3583461046218872
-12.923787117004395 2.9675893783569336 0.5152016282081604
-12.618399620056152 2.857137680053711 0.32113373279571533
-12.554269790649414 1.215735912322998 -7.675696849822998
-13.81941032409668 1.5165256261825562 4.334158420562744
-12.77381420135498 1.8771027326583862 0.9797840118408203
-12.964008331298828 1.4689652919769287 2.16451096534729
-14.912017822265625 -4.800919055938721 -6.402132034301758
-15.492780685424805 -3.444209575653076 -4.554047107696533
-13.70937442779541 3.0330822467803955 1.6368604898452759
-12.612237930297852 0.14008796215057373 -6.062033653259277
-13.998867988586426 2.720529079437256 3.831733465194702
-14.780584335327148 1.4507378339767456 3.2999701499938965
-15.248159408569336 2.29137921333313 4.804745197296143
-15.724478721618652 3.7967453002929688 4.60496711730957
-15.571504592895508 3.860865592956543 4.288490295410156
-14.987669944763184 4.043822765350342 5.180026054382324
-15.291500091552734 -4.812738418579102 -5.850988864898682
-15.99920654296875 -3.577131748199463 -5.584681987762451
-16.080974578857422 -4.175981521606445 -6.734335422515869
-15.399496078491211 2.7213759422302246 0.735992431640625
-16.065649032592773 0.8219277858734131 -1.2575829029083252
-16.25002670288086 -0.70145583152771 -0.6610750555992126
-16.40547752380371 -0.30039122700691223 -0.015604282729327679
-16.178455352783203 0.7952903509140015 -0.707075297832489
-15.675151824951172 0.6522727608680725 -2.2587974071502686
-15.852972030639648 -1.5742818117141724 -7.634963512420654
-13.631673812866211 1.4952399730682373 -2.438673734664917
-12.865461349487305 5.523396968841553 -6.062671184539795
-14.543964385986328 1.6194162368774414 -3.6793949604034424
-14.42734146118164 0.10403536260128021 -4.3581929206848145
-15.253183364868164 -0.21229563653469086 -1.679863691329956
-15.258691787719727 4.888791084289551 3.7502009868621826
-14.177824020385742 5.140346527099609 0.5176134705543518
-15.3038911819458 -3.1144535541534424 -9.752080917358398
-15.608664512634277 -3.6987037658691406 -8.200761795043945
-16.585365295410156 -2.8269999027252197 -7.133067607879639
-15.84605598449707 2.0922601222991943 -5.227768898010254
-16.671085357666016 -0.8485915660858154 -5.787049770355225
-16.72991371154785 -0.7038629055023193 -6.8304643630981445
-16.05789566040039 -1.1126832962036133 -3.639235258102417
-15.581756591796875 1.8634508848190308 -2.50651478767395
-15.433446884155273 1.7127737998962402 -2.0801472663879395
-15.493454933166504 0.22700700163841248 -3.7845776081085205
-15.672515869140625 0.8578700423240662 -2.78684401512146
-14.72728443145752 3.7867774963378906 3.487671136856079
-15.501550674438477 5.702966213226318 1.3365764617919922
-18.026193618774414 -0.9026021957397461 -3.6054751873016357
-14.815095901489258 5.635056018829346 -2.2829012870788574
-17.97968101501465 4.9677934646606445 8.171171188354492
-17.138090133666992 5.035947799682617 5.837280750274658
-17.32509422302246 -1.9233992099761963 -2.098386526107788
-16.9274959564209 2.6874477863311768 4.6835408210754395
-16.204601287841797 5.137274265289307 3.1084914207458496
-16.96152687072754 4.301077365875244 0.2014523148536682
-17.01368522644043 2.4183125495910645 -0.30717453360557556
-18.215435028076172 0.32269302010536194 -3.0514097213745117
-17.387592315673828 0.8853709697723389 -7.901508808135986
-17.83736801147461 -0.2582222819328308 -2.5257015228271484
-17.704565048217773 0.8113592863082886 2.1104135513305664
-17.848041534423828 3.502401113510132 -0.6552475094795227
-18.05078125 1.8607871532440186 -1.079243540763855
-16.270408630371094 10.421341896057129 10.171229362487793
-14.822343826293945 11.198046684265137 6.985857009887695
-17.150644302368164 1.40512216091156 -6.840404510498047
-18.390758514404297 -0.05254841595888138 -8.740687370300293
-18.96031379699707 4.030167102813721 0.684625506401062
-15.97303581237793 11.218286514282227 9.203166007995605
-18.259231567382812 2.7393124103546143 -3.988662004470825
-17.389158248901367 4.561398029327393 1.779297947883606
-17.847131729125977 2.6220204830169678 -9.3569917678833
-17.41514778137207 3.0130503177642822 -9.66431999206543
-16.084505081176758 3.0491135120391846 -14.117985725402832
-17.220170974731445 6.141373634338379 -4.702911376953125
-17.780290603637695 4.384909629821777 -7.85175085067749
-16.375516891479492 10.083227157592773 -2.779738664627075
-15.968915939331055 8.963306427001953 -0.12603162229061127
-17.283639907836914 5.9640936851501465 -1.2284210920333862
-18.578895568847656 2.110119104385376 -8.714672088623047
-17.861282348632812 4.391235828399658 -4.473498821258545
-19.13701629638672 2.6423141956329346 -5.272741794586182
-17.879831314086914 8.427433013916016 0.7205219268798828
-17.329254150390625 5.637404441833496 -4.448089599609375
-17.398441314697266 5.7344207763671875 -5.394300937652588
-19.73697280883789 2.5849714279174805 -4.266347885131836
-19.46933364868164 5.1157965660095215 -1.3470923900604248
-17.933731079101562 9.119911193847656 2.3873229026794434
-16.86774444580078 10.368417739868164 1.2710325717926025
-16.032987594604492 9.610882759094238 -1.237084984779358
-16.885395050048828 10.302247047424316 1.726530909538269
-19.066280364990234 3.9400179386138916 -5.07342004776001
-18.362791061401367 2.312880516052246 -7.730860710144043
-17.828636169433594 3.846135139465332 -10.063570976257324
-17.462373733520508 4.951027870178223 -5.838775157928467
-17.414735794067383 6.330275535583496 -4.590391635894775
-18.2893009185791 6.537285804748535 -1.9399068355560303
-17.115041732788086 9.15846061706543 0.6857582926750183
-16.69894027709961 11.801301002502441 -0.218992218375206
-17.27656364440918 9.678866386413574 3.570279598236084
-15.5494384765625 14.493752479553223 8.649479866027832
-16.68800926208496 12.000405311584473 0.1694716513156891
-17.174884796142578 11.532380104064941 -0.5904271602630615
-17.069900512695312 10.745739936828613 1.8872965574264526
-17.000844955444336 11.619851112365723 0.7628016471862793
-16.875993728637695 13.399581909179688 -0.8077210783958435
-15.939848899841309 12.929595947265625 -5.918768405914307
-16.735139846801758 12.60334587097168 -1.3757104873657227
-18.229461669921875 7.190271377563477 -8.343391418457031
-18.675445556640625 5.685342788696289 -7.30068826675415
-17.151016235351562 12.163588523864746 0.12943439185619354
